# This PCD file was generated using the MATLAB® pcwrite function
# from Computer Vision Toolbox®.
# .PCD v.7 - Point Cloud Data file format
VERSION .7
FIELDS x y z intensity
SIZE 4 4 4 4
TYPE F F F F
COUNT 1 1 1 1
WIDTH 1217
HEIGHT 1
VIEWPOINT 0 0 0 1 0 0 0
POINTS 1217
DATA ascii
-5.634798 2.128090 -1.170804 15.000000
-4.693168 1.770594 -1.158048 12.000000
-4.125250 1.554688 -1.181250 11.000000
-24.206802 9.272733 -0.452471 1.000000
-15.733177 6.023660 -0.882908 3.000000
-10.733824 4.105295 -1.005429 7.000000
-8.321805 3.181121 -1.093899 11.000000
-6.726505 2.568602 -1.140407 17.000000
-5.631378 2.148165 -1.171567 15.000000
-4.712452 1.796684 -1.164347 12.000000
-4.105355 1.563579 -1.177109 12.000000
-24.069853 9.316757 -0.450516 2.000000
-15.713115 6.075805 -0.882908 3.000000
-10.713854 4.140581 -1.004906 7.000000
-8.324176 3.213699 -1.095605 13.000000
-6.710577 2.588053 -1.139156 19.000000
-5.629343 2.169924 -1.172712 15.000000
-4.702831 1.810902 -1.163447 12.000000
-4.099873 1.577899 -1.177109 11.000000
-23.917995 9.354101 -0.448283 1.000000
-15.657262 6.120256 -0.881024 3.000000
-10.706759 4.180851 -1.005603 7.000000
-8.308641 3.242745 -1.095118 13.000000
-6.686323 2.606888 -1.136653 17.000000
-5.632710 2.193837 -1.175002 15.000000
-4.672554 1.818935 -1.157598 12.000000
-4.097940 1.593602 -1.178144 11.000000
-23.814524 9.409616 -0.446956 1.000000
-15.670318 6.185347 -0.882908 3.000000
-10.688393 4.216739 -1.005254 7.000000
-8.283067 3.264459 -1.093168 13.000000
-6.673965 2.627601 -1.136027 17.000000
-5.632324 2.216362 -1.176528 15.000000
-4.668310 1.835134 -1.158048 12.000000
-4.092352 1.607898 -1.178144 12.000000
-23.437725 9.350705 -0.440464 1.000000
-15.648632 6.240005 -0.882908 3.000000
-10.674352 4.252158 -1.005254 8.000000
-8.260556 3.288945 -1.091706 13.000000
-6.670259 2.653070 -1.136966 14.000000
-5.606698 2.227780 -1.172712 15.000000
-4.665497 1.852858 -1.158948 12.000000
-4.094180 1.624311 -1.180215 10.000000
-27.614731 11.089851 2.603517 3.000000
-23.312204 9.395093 -0.438719 1.000000
-15.598211 6.279926 -0.881233 3.000000
-10.629870 4.277495 -1.002465 7.000000
-8.253289 3.317800 -1.092193 13.000000
-6.668757 2.678119 -1.138217 17.000000
-5.593423 2.245140 -1.171567 15.000000
-4.666564 1.871217 -1.160748 12.000000
-4.074141 1.632840 -1.176074 11.000000
-24.777725 10.091431 -0.466991 1.000000
-15.603579 6.351825 -0.882908 3.000000
-10.606739 4.313422 -1.001768 7.000000
-8.241073 3.348029 -1.092193 14.000000
-6.649273 2.699991 -1.136653 17.000000
-5.586975 2.266365 -1.171949 15.000000
-4.659344 1.889123 -1.160748 12.000000
-4.071710 1.649213 -1.177109 11.000000
-15.582431 6.403531 -0.882908 3.000000
-10.593462 4.351175 -1.001943 8.000000
-8.234845 3.379034 -1.092924 14.000000
-6.620177 2.713786 -1.133211 14.000000
-5.599013 2.294042 -1.176147 17.000000
-4.635018 1.897183 -1.156249 12.000000
-4.073079 1.666343 -1.179180 11.000000
-27.865280 11.530789 2.638379 3.000000
-30.379370 12.558697 1.722795 3.000000
-15.548916 6.453295 -0.882280 3.000000
-10.584495 4.388572 -1.002465 8.000000
-8.208329 3.401681 -1.090974 14.000000
-6.614315 2.738388 -1.133837 14.000000
-5.585933 2.310344 -1.175002 17.000000
-4.624767 1.911858 -1.155349 12.000000
-4.071103 1.681314 -1.180215 11.000000
-30.427496 12.703145 1.728029 4.000000
-15.553218 6.515630 -0.883745 3.000000
-10.563597 4.423187 -1.001943 8.000000
-8.197002 3.428885 -1.090974 14.000000
-6.616133 2.764875 -1.135714 14.000000
-5.557906 2.321507 -1.170804 15.000000
-4.632789 1.933189 -1.158948 12.000000
-4.072340 1.698491 -1.182285 11.000000
-24.017509 10.170120 -0.455263 1.000000
-15.529235 6.572588 -0.883745 3.000000
-10.531575 4.453053 -1.000374 8.000000
-8.188036 3.460448 -1.091462 14.000000
-6.595034 2.784501 -1.133837 14.000000
-5.538915 2.336314 -1.168514 15.000000
-4.636446 1.954697 -1.161647 12.000000
-4.041462 1.702196 -1.175039 11.000000
-28.473684 12.180312 8.298256 3.000000
-28.685163 12.247096 6.062766 4.000000
-24.165739 10.332495 -0.458754 1.000000
-15.533069 6.635030 -0.885211 3.000000
-10.514137 4.488998 -1.000199 8.000000
-8.172866 3.486023 -1.090974 13.000000
-6.585766 2.806351 -1.133837 14.000000
-5.527115 2.354095 -1.167751 15.000000
-4.615593 1.963959 -1.158048 12.000000
-4.050018 1.721634 -1.179180 12.000000
-28.982279 12.511743 7.287965 4.000000
-30.260159 13.019574 2.882066 3.000000
-23.846790 10.294736 -0.453379 12.000000
-15.508644 6.691921 -0.885211 3.000000
-10.496573 4.524886 -1.000025 8.000000
-8.160033 3.515957 -1.090974 13.000000
-6.566363 2.826567 -1.132273 17.000000
-5.524275 2.375700 -1.168896 12.000000
-4.615524 1.983942 -1.159848 12.000000
-4.041906 1.735704 -1.178662 13.000000
-29.092743 12.686127 8.504276 3.000000
-23.920700 10.425848 -0.455473 11.000000
-15.559616 6.775204 -0.889397 3.000000
-10.484371 4.563081 -1.000374 7.000000
-8.153790 3.545370 -1.091706 13.000000
-6.553329 2.846754 -1.131647 17.000000
-5.517748 2.395751 -1.169278 15.000000
-4.591042 1.991483 -1.155349 12.000000
-4.041140 1.752109 -1.180215 11.000000
-27.564653 12.117265 5.852876 3.000000
-30.241520 13.262506 2.889039 3.000000
-23.589493 10.384548 -0.449888 9.000000
-15.523711 6.827359 -0.888769 3.000000
-10.470201 4.600455 -1.000548 8.000000
-8.124385 3.568046 -1.089512 13.000000
-6.548281 2.873130 -1.132586 14.000000
-5.485976 2.404753 -1.164317 12.000000
-4.597993 2.014550 -1.158948 12.000000
-4.034999 1.766205 -1.180215 12.000000
-28.197836 12.525030 7.123301 4.000000
-27.186869 12.058921 4.710555 16.000000
-23.213209 10.315777 -0.443396 9.000000
-15.525338 6.892856 -0.890235 3.000000
-10.434044 4.628091 -0.998631 8.000000
-8.119138 3.599603 -1.090487 11.000000
-6.549047 2.900772 -1.134463 14.000000
-5.470368 2.420708 -1.162790 12.000000
-4.594496 2.032165 -1.159848 12.000000
-4.021741 1.777155 -1.178144 12.000000
-28.118387 12.607418 7.114303 4.000000
-27.353968 12.253225 5.826163 3.000000
-22.472786 10.080828 -0.429923 1.000000
-15.512116 6.951912 -0.890863 3.000000
-10.416009 4.663668 -0.998456 8.000000
-8.119208 3.633598 -1.092193 13.000000
-6.520849 2.915550 -1.131334 14.000000
-5.461884 2.439790 -1.162790 15.000000
-4.594492 2.051370 -1.161647 12.000000
-4.011984 1.789610 -1.177109 13.000000
-27.257364 12.324362 5.814714 3.000000
-23.559608 10.667291 -0.451424 9.000000
-15.462281 6.994490 -0.889397 3.000000
-10.414189 4.706566 -0.999851 8.000000
-8.097428 3.657832 -1.090974 11.000000
-6.510632 2.938297 -1.131334 14.000000
-5.455126 2.459644 -1.163172 15.000000
-4.565984 2.057786 -1.156249 12.000000
-4.009237 1.805187 -1.178144 12.000000
-29.199587 13.337801 7.411238 5.000000
-29.930084 13.627327 2.877186 3.000000
-23.554964 10.764431 -0.452052 6.000000
-15.434136 7.046766 -0.889188 3.000000
-10.397697 4.742887 -0.999851 8.000000
-8.068353 3.678666 -1.088781 13.000000
-6.500336 2.961004 -1.131334 14.000000
-5.457228 2.483552 -1.165462 15.000000
-4.558774 2.073711 -1.156249 12.000000
-4.013463 1.823967 -1.181250 11.000000
-29.287344 13.501657 7.445431 5.000000
-29.842516 13.713397 2.873351 3.000000
-22.449516 10.354138 -0.431528 5.000000
-15.456613 7.122320 -0.891909 3.000000
-10.382887 4.779989 -1.000025 8.000000
-8.062680 3.710121 -1.089756 13.000000
-6.493550 2.985328 -1.131960 14.000000
-5.441389 2.499310 -1.163935 15.000000
-4.558591 2.092865 -1.158048 12.000000
-4.003560 1.836356 -1.180215 11.000000
-27.332779 12.693254 4.773129 16.000000
-29.761929 13.802403 2.870213 3.000000
-15.435276 7.177919 -0.892119 3.000000
-10.360716 4.813687 -0.999502 8.000000
-8.056881 3.741589 -1.090731 13.000000
-6.472337 3.002990 -1.130083 14.000000
-5.432631 2.518287 -1.163935 15.000000
-4.568940 2.116956 -1.162547 12.000000
-3.993619 1.848696 -1.179180 10.000000
-29.771315 13.933226 2.875791 3.000000
-21.486181 10.092319 -0.414355 1.000000
-15.413740 7.233455 -0.892328 3.000000
-10.347459 4.851513 -0.999851 8.000000
-8.038377 3.767165 -1.089999 11.000000
-6.461816 3.025563 -1.130083 14.000000
-5.416694 2.533910 -1.162409 15.000000
-4.554461 2.129591 -1.160748 12.000000
-3.987141 1.862626 -1.179180 11.000000
-27.999912 13.253424 6.021551 4.000000
-29.607189 13.982616 2.864635 3.000000
-22.502501 10.665714 -0.434670 9.000000
-15.406451 7.295760 -0.893375 3.000000
-10.332262 4.888458 -1.000025 7.000000
-8.021591 3.793502 -1.089512 11.000000
-6.447642 3.046414 -1.129457 14.000000
-5.418468 2.557829 -1.164698 15.000000
-4.536424 2.140488 -1.158048 12.000000
-3.973626 1.873237 -1.177109 11.000000
-21.447678 10.257596 -0.414983 8.000000
-15.380888 7.349499 -0.893375 3.000000
-10.320532 4.927062 -1.000548 8.000000
-8.001132 3.818062 -1.088537 11.000000
-6.440537 3.070598 -1.130083 14.000000
-5.402418 2.573349 -1.163172 15.000000
-4.532445 2.157982 -1.158948 12.000000
-3.970552 1.888755 -1.178144 12.000000
-29.688414 14.275313 2.882066 3.000000
-21.512594 10.381074 -0.416938 6.000000
-15.365934 7.408343 -0.894003 3.000000
-10.306858 4.964789 -1.000897 8.000000
-7.969871 3.837355 -1.086100 11.000000
-6.436899 3.096488 -1.131334 14.000000
-5.389863 2.590492 -1.162409 15.000000
-4.545963 2.183918 -1.164347 12.000000
-3.974384 1.907620 -1.181250 12.000000
-30.176170 14.639763 2.934360 4.000000
-21.393522 10.415833 -0.415332 9.000000
-15.347162 7.465434 -0.894422 3.000000
-10.282296 4.997256 -1.000199 8.000000
-7.936785 3.855612 -1.083418 9.000000
-6.422496 3.117215 -1.130708 14.000000
-5.371955 2.605006 -1.160500 12.000000
-4.520776 2.191272 -1.159848 12.000000
-3.953792 1.914746 -1.177109 11.000000
-30.124895 14.744987 2.934360 4.000000
-21.287060 10.451472 -0.413936 2.000000
-15.335357 7.525997 -0.895259 6.000000
-10.263002 5.032238 -1.000025 7.000000
-7.962496 3.902507 -1.088781 13.000000
-6.404482 3.136135 -1.129457 14.000000
-5.368120 2.626332 -1.161645 10.000000
-4.516602 2.208750 -1.160748 12.000000
-3.945348 1.927687 -1.176591 13.000000
-21.490566 10.644655 -0.418613 6.000000
-15.328217 7.585664 -0.896306 3.000000
-10.268589 5.079520 -1.002291 8.000000
-7.937054 3.922736 -1.087075 11.000000
-6.379877 3.150361 -1.126954 14.000000
-5.351878 2.641577 -1.160119 12.000000
-4.509252 2.223717 -1.160748 12.000000
-3.938596 1.941446 -1.176591 13.000000
-20.473013 10.229776 -0.399486 1.000000
-15.325324 7.654292 -0.897771 6.000000
-10.243668 5.111766 -1.001594 8.000000
-7.904858 3.942942 -1.084637 11.000000
-6.375360 3.177246 -1.128206 14.000000
-5.340867 2.659369 -1.159737 12.000000
-4.494093 2.236755 -1.158948 12.000000
-3.940443 1.959485 -1.179180 11.000000
-21.355019 10.763815 -0.417427 8.000000
-15.321261 7.715855 -0.899027 9.000000
-10.236439 5.152871 -1.002640 8.000000
-7.895285 3.970920 -1.085125 13.000000
-6.368318 3.200146 -1.128831 14.000000
-5.319269 2.671829 -1.157066 12.000000
-4.497101 2.256891 -1.161647 10.000000
-3.940486 1.976693 -1.181250 11.000000
-20.099844 10.214890 -0.393552 5.000000
-15.329848 7.787376 -0.901121 6.000000
-10.215740 5.184987 -1.002291 8.000000
-7.885615 3.998873 -1.085612 11.000000
-6.346536 3.216999 -1.126954 14.000000
-5.308630 2.688563 -1.156684 15.000000
-4.492672 2.274337 -1.162547 8.000000
-3.920120 1.982772 -1.177109 11.000000
-19.612064 10.053297 -0.384686 12.000000
-15.323499 7.848183 -0.902272 6.000000
-10.201130 5.222424 -1.002640 8.000000
-7.875144 4.028182 -1.086100 11.000000
-6.332315 3.236228 -1.126328 14.000000
-5.314948 2.715117 -1.160119 15.000000
-4.492049 2.292766 -1.164347 10.000000
-3.913174 1.996444 -1.177109 13.000000
-19.722519 10.196990 -0.387548 1.000000
-15.287533 7.900621 -0.901853 9.000000
-10.196999 5.265316 -1.004034 8.000000
-7.867383 4.060658 -1.087075 11.000000
-6.313390 3.255792 -1.125077 14.000000
-5.294966 2.728259 -1.157829 12.000000
-4.466291 2.300291 -1.159848 12.000000
-3.913052 2.013628 -1.179180 10.000000
-19.470482 10.152977 -0.383290 3.000000
-15.284275 7.963275 -0.903214 12.000000
-10.182090 5.302721 -1.004383 8.000000
-7.839786 4.079397 -1.085125 11.000000
-6.313074 3.282179 -1.126954 14.000000
-5.283669 2.745819 -1.157448 10.000000
-4.465556 2.318682 -1.161647 12.000000
-3.911143 2.029944 -1.180732 13.000000
-19.585386 10.295652 -0.386222 2.000000
-15.263454 8.020298 -0.903633 12.000000
-10.167976 5.338312 -1.004732 8.000000
-7.832529 4.110430 -1.086100 11.000000
-6.305076 3.306032 -1.127580 14.000000
-5.267578 2.759679 -1.155921 12.000000
-4.447076 2.328833 -1.158948 12.000000
-3.906102 2.043797 -1.181250 13.000000
-19.552864 10.365825 -0.386292 12.000000
-15.254425 8.080215 -0.904679 9.000000
-10.159849 5.379360 -1.005777 8.000000
-7.815346 4.134523 -1.085612 11.000000
-6.285348 3.322303 -1.126015 12.000000
-5.250969 2.774383 -1.154395 12.000000
-4.449671 2.349022 -1.161647 12.000000
-3.890761 2.052233 -1.178662 14.000000
-19.971437 10.681690 -0.395332 16.000000
-15.230330 8.142499 -0.905098 12.000000
-10.143578 5.418441 -1.006126 8.000000
-7.820427 4.175719 -1.088537 11.000000
-6.258601 3.338975 -1.123512 12.000000
-5.258090 2.802844 -1.158211 15.000000
-4.444057 2.367924 -1.162547 12.000000
-3.881146 2.066250 -1.178144 12.000000
-20.009716 10.792153 -0.396833 21.000000
-15.183908 8.182535 -0.903947 9.000000
-10.124600 5.453818 -1.006126 8.000000
-7.806536 4.201632 -1.088537 11.000000
-6.231838 3.351290 -1.120697 12.000000
-5.237898 2.815604 -1.155921 12.000000
-4.436181 2.382648 -1.162547 12.000000
-3.877313 2.081614 -1.179180 12.000000
-19.262215 10.475948 -0.382731 11.000000
-15.166099 8.244805 -0.904679 9.000000
-10.101998 5.487227 -1.005777 8.000000
-7.775384 4.221690 -1.086343 13.000000
-6.238610 3.384474 -1.124138 12.000000
-5.229765 2.834806 -1.156303 10.000000
-4.413710 2.391467 -1.158948 12.000000
-3.873423 2.096972 -1.180215 12.000000
-19.039673 10.441206 -0.379031 1.000000
-15.156189 8.304654 -0.905726 15.000000
-10.096764 5.530111 -1.007172 8.000000
-7.759599 4.246500 -1.086100 11.000000
-6.223886 3.403247 -1.123512 12.000000
-5.209501 2.847396 -1.154013 12.000000
-4.419438 2.413562 -1.162547 12.000000
-3.867774 2.111407 -1.180732 13.000000
-19.904526 11.001493 -0.396972 13.000000
-15.151581 8.371035 -0.907192 18.000000
-10.078371 5.563561 -1.007172 8.000000
-7.762108 4.283152 -1.088537 11.000000
-6.205050 3.421135 -1.122261 12.000000
-5.193152 2.860865 -1.152487 10.000000
-4.429764 2.439313 -1.167496 12.000000
-3.860751 2.124222 -1.180732 13.000000
-19.445034 10.836303 -0.388560 18.000000
-15.170856 8.447456 -0.910018 21.000000
-10.065850 5.602585 -1.007869 8.000000
-7.753069 4.311759 -1.089268 13.000000
-6.197126 3.443611 -1.122887 14.000000
-5.184851 2.879927 -1.152868 12.000000
-4.406316 2.445478 -1.163447 12.000000
-3.848245 2.134873 -1.179180 11.000000
-15.096517 8.482170 -0.907506 21.000000
-10.052198 5.643340 -1.008566 8.000000
-7.740675 4.342090 -1.089756 13.000000
-6.180410 3.465450 -1.122261 12.000000
-5.189675 2.907549 -1.156303 15.000000
-4.403694 2.466188 -1.165247 12.000000
-3.842080 2.149908 -1.179697 14.000000
-19.184313 10.871659 -0.384895 15.000000
-15.113495 8.557768 -0.910227 21.000000
-10.042841 5.684286 -1.009612 8.000000
-7.715105 4.363219 -1.088293 13.000000
-6.172323 3.487871 -1.122887 14.000000
-5.176076 2.923714 -1.155539 10.000000
-4.385308 2.475032 -1.162547 12.000000
-3.839600 2.166153 -1.181250 13.000000
-19.125418 10.926641 -0.384477 16.000000
-15.003980 8.568538 -0.905517 21.000000
-10.022942 5.719300 -1.009612 8.000000
-7.695612 4.389502 -1.087806 13.000000
-6.156068 3.508510 -1.122261 12.000000
-5.152190 2.933994 -1.152487 12.000000
-4.376209 2.491086 -1.162547 12.000000
-3.833694 2.180498 -1.181768 13.000000
-19.047304 10.970386 -0.383674 25.000000
-14.843920 8.542538 -0.897562 25.000000
-9.982190 5.742333 -1.007520 8.000000
-7.684456 4.416974 -1.088293 13.000000
-6.144399 3.528906 -1.122261 12.000000
-5.138512 2.950004 -1.151723 15.000000
-4.381446 2.513342 -1.166146 12.000000
-3.814328 2.187140 -1.178144 13.000000
-18.989868 11.025767 -0.383290 21.000000
-14.703686 8.533722 -0.890967 21.000000
-9.968981 5.781138 -1.008218 8.000000
-7.676802 4.450089 -1.089512 13.000000
-6.121168 3.545461 -1.120384 12.000000
-5.131581 2.969891 -1.152487 12.000000
-4.365458 2.525480 -1.164347 12.000000
-3.810015 2.202376 -1.179180 12.000000
-19.056543 11.153600 -0.385419 27.000000
-14.616690 8.548150 -0.887409 21.000000
-9.959060 5.821937 -1.009264 8.000000
-7.663715 4.476525 -1.089756 13.000000
-6.109378 3.565739 -1.120384 12.000000
-5.126270 2.990755 -1.153631 10.000000
-4.350326 2.536016 -1.162547 12.000000
-3.804360 2.215969 -1.179697 13.000000
-18.935047 11.166963 -0.383709 21.000000
-14.767420 8.705617 -0.898399 18.000000
-9.943130 5.856956 -1.009612 8.000000
-7.622386 4.488136 -1.086100 11.000000
-6.100298 3.589048 -1.121009 12.000000
-5.124787 3.012712 -1.155539 10.000000
-4.341446 2.551187 -1.162547 12.000000
-3.813261 2.239018 -1.184874 13.000000
-18.840944 11.200295 -0.382592 15.000000
-14.863820 8.829002 -0.906040 21.000000
-9.946608 5.905871 -1.012053 8.000000
-7.597217 4.507313 -1.084637 11.000000
-6.098557 3.615304 -1.122887 14.000000
-5.100728 3.022574 -1.152487 10.000000
-4.343023 2.571528 -1.165247 12.000000
-3.798772 2.248379 -1.182803 15.000000
-19.240263 11.537886 -0.391597 13.000000
-14.809253 8.873687 -0.904784 21.000000
-9.900967 5.927952 -1.009612 8.000000
-7.576448 4.534410 -1.084150 11.000000
-6.081239 3.636667 -1.122261 14.000000
-5.087930 3.040241 -1.152105 10.000000
-4.329770 2.586188 -1.164347 12.000000
-3.778895 2.255356 -1.179180 13.000000
-18.847332 11.391885 -0.384407 33.000000
-14.861959 8.975927 -0.909913 25.000000
-9.883624 5.964538 -1.009961 8.000000
-7.567372 4.564932 -1.085125 11.000000
-6.058357 3.651753 -1.120384 14.000000
-5.090741 3.066087 -1.155158 12.000000
-4.317379 2.599272 -1.163447 12.000000
-3.777620 2.272517 -1.181250 13.000000
-18.812572 11.460732 -0.384511 16.000000
-14.764003 8.987245 -0.905831 25.000000
-9.886573 6.013500 -1.012401 8.000000
-7.546304 4.588224 -1.084394 13.000000
-6.048949 3.674931 -1.121009 12.000000
-5.076650 3.081802 -1.154395 10.000000
-4.314943 2.618372 -1.165247 12.000000
-3.768012 2.284689 -1.180732 14.000000
-17.799414 10.928865 -0.364581 1.000000
-14.621884 8.970840 -0.899027 25.000000
-9.868921 6.050055 -1.012750 8.000000
-7.511622 4.603131 -1.081712 11.000000
-6.037770 3.697054 -1.121322 14.000000
-5.062514 3.097452 -1.153631 10.000000
-4.292476 2.625285 -1.161647 12.000000
-3.769906 2.303870 -1.183838 13.000000
-18.747412 11.601250 -0.384826 20.000000
-14.590479 9.021830 -0.899027 25.000000
-9.844354 6.082370 -1.012401 8.000000
-7.492132 4.627235 -1.081225 11.000000
-6.039958 3.727443 -1.124138 12.000000
-5.034959 3.104801 -1.149815 10.000000
-4.293240 2.646387 -1.164347 12.000000
-3.753616 2.311950 -1.181250 12.000000
-18.555788 11.572447 -0.381719 25.000000
-14.550424 9.067419 -0.898504 21.000000
-9.823060 6.116699 -1.012401 8.000000
-7.479304 4.655459 -1.081712 11.000000
-6.030264 3.750591 -1.124764 12.000000
-5.040767 3.132719 -1.153631 12.000000
-4.280665 2.659302 -1.163447 12.000000
-3.745523 2.325038 -1.181250 13.000000
-18.598242 11.689284 -0.383429 8.000000
-14.469636 9.087348 -0.895468 21.000000
-9.801650 6.150949 -1.012401 8.000000
-7.469735 4.685757 -1.082687 11.000000
-6.002074 3.762172 -1.121948 14.000000
-5.034791 3.153424 -1.154776 12.000000
-4.284572 2.682498 -1.167046 12.000000
-3.734108 2.336050 -1.180215 13.000000
-17.307217 10.962326 -0.357600 1.000000
-14.402389 9.115367 -0.893270 21.000000
-9.796957 6.195778 -1.014144 8.000000
-7.458367 4.714983 -1.083418 13.000000
-5.987234 3.782047 -1.121635 12.000000
-5.023752 3.170980 -1.154776 10.000000
-4.252108 2.682880 -1.160748 12.000000
-3.729199 2.351132 -1.181250 12.000000
-19.038712 12.152369 -0.394250 1.000000
-14.372165 9.166664 -0.893375 15.000000
-9.776948 6.231011 -1.014319 8.000000
-7.426795 4.731392 -1.081225 11.000000
-5.973995 3.802924 -1.121635 12.000000
-5.014310 3.189550 -1.155158 10.000000
-4.259161 2.708164 -1.165247 12.000000
-3.725862 2.367242 -1.182803 13.000000
-17.398449 11.191055 -0.361090 3.000000
-14.642502 9.411158 -0.912216 15.000000
-9.766878 6.272630 -1.015539 8.000000
-7.410233 4.757289 -1.081225 11.000000
-5.973986 3.832286 -1.124138 12.000000
-4.976699 3.190083 -1.149052 7.000000
-4.246401 2.720911 -1.164347 12.000000
-3.722456 2.383359 -1.184356 11.000000
-17.299187 11.042034 -0.358228 5.000000
-17.631119 11.427923 -0.366745 13.000000
-14.646444 9.486095 -0.914519 18.000000
-9.728195 6.295863 -1.013796 8.000000
-7.383582 4.776656 -1.079762 11.000000
-5.968866 3.858479 -1.125703 14.000000
-4.982027 3.218085 -1.152868 10.000000
-4.246699 2.742060 -1.167046 12.000000
-3.699505 2.386910 -1.179697 13.000000
-14.591496 9.522976 -0.913158 18.000000
-9.714504 6.335222 -1.014667 8.000000
-7.376840 4.808906 -1.081225 11.000000
-5.950396 3.876055 -1.124764 17.000000
-4.975699 3.238670 -1.154013 10.000000
-4.243636 2.761118 -1.168846 12.000000
-3.692770 2.400863 -1.180215 12.000000
-14.502424 9.540807 -0.303009 5.000000
-14.491423 9.529946 -0.908971 18.000000
-9.687338 6.365808 -1.014144 8.000000
-7.356693 4.832442 -1.080737 11.000000
-5.926920 3.890301 -1.122887 17.000000
-4.967646 3.258174 -1.154776 7.000000
-4.219304 2.766299 -1.164797 12.000000
-3.687598 2.415857 -1.181250 11.000000
-16.732471 11.091788 -0.350409 6.000000
-14.374818 9.521703 -0.903633 15.000000
-9.681668 6.410587 -1.015887 8.000000
-7.340626 4.856813 -1.080737 11.000000
-5.920579 3.914289 -1.124138 17.000000
-4.959519 3.277658 -1.155539 7.000000
-4.205230 2.777053 -1.163447 8.000000
-3.688817 2.435099 -1.184356 12.000000
-14.462361 9.586954 -0.302869 1.000000
-16.271282 10.868011 -0.341544 3.000000
-14.492638 9.676361 -0.913263 18.000000
-9.657573 6.443240 -1.015713 8.000000
-7.319472 4.881485 -1.080250 11.000000
-5.916054 3.942538 -1.126015 17.000000
-4.943144 3.291687 -1.154395 10.000000
-4.203133 2.797847 -1.165696 12.000000
-3.678685 2.446892 -1.183838 14.000000
-16.664581 11.215031 -0.350619 1.000000
-14.361024 9.657497 -0.906982 18.000000
-9.631718 6.474688 -1.015365 7.000000
-7.296651 4.901304 -1.079275 11.000000
-5.898028 3.958830 -1.125077 14.000000
-4.929996 3.307824 -1.154013 12.000000
-4.201926 2.817195 -1.167946 12.000000
-3.663704 2.455413 -1.181768 14.000000
-16.602158 11.257424 -0.350130 3.000000
-14.290814 9.686533 -0.904784 21.000000
-9.599161 6.501563 -1.014319 7.000000
-7.281146 4.927852 -1.079519 11.000000
-5.875299 3.974885 -1.123512 14.000000
-4.918419 3.325014 -1.154013 7.000000
-4.198031 2.836941 -1.169746 12.000000
-3.643903 2.460620 -1.178144 12.000000
-16.684950 11.398780 -0.352713 8.000000
-14.572029 9.947823 -0.924672 21.000000
-9.589572 6.544017 -1.015713 7.000000
-7.270459 4.957713 -1.080494 11.000000
-5.855555 3.989899 -1.122261 12.000000
-4.916517 3.348795 -1.156303 7.000000
-4.188600 2.850847 -1.169746 12.000000
-3.646471 2.480933 -1.181768 14.000000
-18.218689 12.535406 -0.386012 5.000000
-14.504307 9.975987 -0.922578 18.000000
-9.574389 6.580294 -1.016410 8.000000
-7.236749 4.971819 -1.078056 11.000000
-5.830193 4.002487 -1.120071 12.000000
-4.910241 3.368413 -1.157448 12.000000
-4.168979 2.858840 -1.167046 12.000000
-3.644598 2.497380 -1.183838 14.000000
-18.046629 12.510068 -0.383290 16.000000
-14.528605 10.063839 -0.926242 18.000000
-9.548082 6.611409 -1.016062 8.000000
-7.223485 4.998051 -1.078544 11.000000
-5.829885 4.030787 -1.122574 12.000000
-4.880690 3.373251 -1.153250 10.000000
-4.165891 2.877078 -1.168846 12.000000
-3.631091 2.506792 -1.182285 12.000000
-16.047401 11.041449 -0.340008 4.000000
-15.932517 11.122959 -0.339170 6.000000
-14.603122 10.191079 -0.933255 22.000000
-9.526104 6.643038 -1.016062 7.000000
-7.212507 5.027778 -1.079519 11.000000
-5.814160 4.049983 -1.122261 12.000000
-4.877533 3.395026 -1.155158 12.000000
-4.168620 2.900505 -1.172445 12.000000
-3.616413 2.514409 -1.180215 10.000000
-15.556660 10.941512 -0.331980 1.000000
-14.592126 10.255524 -0.934720 22.000000
-9.507752 6.679679 -1.016585 8.000000
-7.202294 5.056229 -1.080494 11.000000
-5.789378 4.061299 -1.120071 12.000000
-4.870473 3.415414 -1.156303 7.000000
-4.165363 2.918785 -1.174245 12.000000
-3.614384 2.530821 -1.182285 10.000000
-15.404153 10.914824 -0.329536 5.000000
-14.613116 10.350492 -0.938488 19.000000
-9.477871 6.708224 -1.015887 8.000000
-7.186957 5.084885 -1.080981 11.000000
-5.774453 4.082492 -1.120071 12.000000
-4.856918 3.431261 -1.155921 10.000000
-4.151453 2.931785 -1.173345 14.000000
-3.609820 2.547392 -1.183838 14.000000
-15.844471 11.310094 -0.339798 13.000000
-14.460011 10.314233 -0.930847 13.000000
-9.460885 6.745897 -1.016585 8.000000
-7.147419 5.092564 -1.077569 11.000000
-5.762491 4.102766 -1.120384 12.000000
-4.840113 3.444780 -1.154776 10.000000
-4.132179 2.938760 -1.170645 12.000000
-3.599330 2.558859 -1.183321 12.000000
-15.020467 10.805243 -0.322974 3.000000
-14.948925 10.749808 -0.964970 20.000000
-9.429623 6.775879 -1.015887 11.000000
-7.137487 5.126917 -1.079031 11.000000
-5.751509 4.128319 -1.121322 12.000000
-4.825860 3.461351 -1.154395 10.000000
-4.136701 2.965961 -1.175144 12.000000
-3.600921 2.579909 -1.186944 13.000000
-15.704840 11.380941 -0.338542 14.000000
-14.744959 10.677491 -0.954085 19.000000
-9.401076 6.805243 -1.015365 18.000000
-7.126882 5.155210 -1.080006 11.000000
-5.739391 4.148522 -1.121635 14.000000
-4.805792 3.472426 -1.152487 7.000000
-4.130004 2.981941 -1.176044 14.000000
-3.577796 2.582286 -1.182285 11.000000
-15.535806 11.341372 -0.335749 12.000000
-14.689590 10.719693 -0.953038 16.000000
-9.361163 6.826281 -1.013621 18.000000
-7.111145 5.183638 -1.080494 11.000000
-5.730533 4.174184 -1.122887 12.000000
-4.803165 3.496113 -1.154776 10.000000
-4.115895 2.994767 -1.175144 12.000000
-3.568759 2.594761 -1.182285 12.000000
-15.492902 11.393160 -0.335680 18.000000
-13.434007 9.871868 -0.873697 3.000000
-9.353337 6.870708 -1.015365 18.000000
-7.084316 5.200141 -1.079031 11.000000
-5.707101 4.186155 -1.121009 14.000000
-4.784599 3.508214 -1.153250 7.000000
-4.109084 3.010703 -1.176044 12.000000
-3.565914 2.611769 -1.184356 10.000000
-13.232510 9.795121 -0.862811 2.000000
-9.336910 6.906425 -1.016062 18.000000
-7.070225 5.225967 -1.079519 11.000000
-5.697223 4.209569 -1.121948 12.000000
-4.776097 3.526394 -1.154013 7.000000
-4.086009 3.015768 -1.172445 12.000000
-3.563454 2.628164 -1.186427 10.000000
-15.299579 11.412275 -0.333166 7.000000
-14.513063 10.817716 -0.948642 13.000000
-9.317536 6.942549 -1.016585 21.000000
-7.048754 5.248246 -1.079031 11.000000
-5.678476 4.224903 -1.121009 10.000000
-4.766909 3.545389 -1.154776 10.000000
-4.080677 3.032789 -1.173795 12.000000
-3.560460 2.645196 -1.188497 11.000000
-13.187143 9.829404 -0.861973 2.000000
-15.021077 11.290442 -0.328001 4.000000
-13.098206 9.841577 -0.858624 2.000000
-9.287251 6.973062 -1.016062 17.000000
-7.031726 5.277654 -1.079519 11.000000
-5.679596 4.259711 -1.124451 12.000000
-4.742886 3.554594 -1.152105 10.000000
-4.087716 3.062458 -1.179193 10.000000
-3.546101 2.654756 -1.186944 13.000000
-15.341883 11.615607 -0.335889 13.000000
-13.100545 9.911460 -0.860927 2.000000
-9.264441 7.006642 -1.016236 21.000000
-7.004685 5.293760 -1.078056 11.000000
-5.655980 4.271381 -1.122574 12.000000
-4.738284 3.577041 -1.154013 12.000000
-4.074428 3.073648 -1.178294 10.000000
-3.533729 2.664791 -1.185909 15.000000
-14.673526 11.186335 -0.322067 1.000000
-13.024564 9.925658 -0.858205 2.000000
-9.245907 7.040949 -1.016759 20.000000
-6.984584 5.316979 -1.077813 11.000000
-5.628457 4.281532 -1.120071 12.000000
-4.718582 3.586793 -1.152105 10.000000
-4.059018 3.084316 -1.176944 10.000000
-3.534104 2.683503 -1.189015 14.000000
-14.697837 11.286191 -0.323463 12.000000
-12.969396 9.951770 -0.856740 2.000000
-9.230763 7.080450 -1.017805 17.000000
-6.966915 5.340110 -1.077813 11.000000
-5.614227 4.300175 -1.120071 12.000000
-4.715385 3.610404 -1.154395 10.000000
-4.045673 3.095390 -1.176044 12.000000
-3.531324 2.699903 -1.191085 14.000000
-15.190934 11.753607 -0.335261 12.000000
-12.962686 10.025929 -0.858833 2.000000
-9.229969 7.133736 -1.020594 13.000000
-6.944788 5.365605 -1.077569 11.000000
-5.610184 4.331356 -1.122574 12.000000
-4.699013 3.625264 -1.153631 10.000000
-4.035300 3.112092 -1.176494 10.000000
-3.527052 2.718158 -1.193156 13.000000
-14.522058 11.317334 -0.321369 7.000000
-13.862233 10.795344 -0.920799 15.000000
-9.198724 7.161014 -1.019897 10.000000
-6.909721 5.375200 -1.074888 13.000000
-5.623864 4.371758 -1.128206 12.000000
-4.675477 3.633213 -1.150960 10.000000
-4.031115 3.130237 -1.178294 10.000000
-3.511438 2.725716 -1.191085 15.000000
-14.564255 11.432164 -0.323184 6.000000
-13.811897 10.833803 -0.919962 15.000000
-9.181509 7.199229 -1.020768 8.000000
-6.911231 5.415202 -1.078056 11.000000
-5.579809 4.370417 -1.122574 12.000000
-4.665859 3.651930 -1.151723 12.000000
-4.018079 3.143791 -1.177844 10.000000
-3.494293 2.732006 -1.188497 13.000000
-14.749048 11.656464 -0.328140 9.000000
-12.829186 10.131875 -0.856740 2.000000
-9.170096 7.239511 -1.022163 8.000000
-6.893236 5.438089 -1.078056 11.000000
-5.563735 4.387672 -1.122261 14.000000
-4.661434 3.673458 -1.153631 10.000000
-4.003040 3.153479 -1.176494 10.000000
-3.488250 2.745968 -1.189532 13.000000
-14.742692 11.735271 -0.328908 14.000000
-13.596828 10.819291 -0.910646 18.000000
-9.160366 7.283875 -1.023906 11.000000
-6.867993 5.457180 -1.077081 11.000000
-5.557667 4.414437 -1.124138 12.000000
-4.662421 3.700692 -1.157066 10.000000
-3.985902 3.162588 -1.174694 12.000000
-3.489240 2.766530 -1.193156 14.000000
-14.708381 11.787846 -0.329013 15.000000
-13.701160 10.976706 -0.920066 18.000000
-9.131497 7.310474 -1.023383 10.000000
-6.849857 5.479927 -1.077081 11.000000
-5.544541 4.434075 -1.124451 12.000000
-4.642455 3.710007 -1.155158 10.000000
-3.992141 3.189169 -1.179643 12.000000
-3.480046 2.778086 -1.193156 15.000000
-14.263220 11.521305 -0.320042 12.000000
-13.592457 10.971649 -0.915461 18.000000
-9.097156 7.340480 -1.022686 10.000000
-6.825676 5.503695 -1.076594 11.000000
-5.524398 4.452854 -1.123825 12.000000
-4.615943 3.717952 -1.152105 10.000000
-3.979866 3.204473 -1.179643 12.000000
-3.463333 2.786583 -1.191085 16.000000
-14.060483 11.434804 -0.316342 12.000000
-13.433551 10.917158 -0.907192 9.000000
-9.080494 7.376891 -1.023557 8.000000
-6.812009 5.530054 -1.077325 11.000000
-5.512668 4.473640 -1.124451 12.000000
-4.608162 3.736949 -1.153250 10.000000
-3.966191 3.215198 -1.178744 12.000000
-3.454073 2.798054 -1.191085 14.000000
-13.653443 11.187148 -0.308105 1.000000
-13.059654 10.693012 -0.884582 6.000000
-9.068818 7.422736 -1.025300 8.000000
-6.802453 5.563780 -1.079031 11.000000
-5.491649 4.490060 -1.123512 12.000000
-4.602038 3.760024 -1.155158 10.000000
-3.948344 3.224782 -1.176944 12.000000
-3.451278 2.816801 -1.193673 12.000000
-13.801375 11.385068 -0.312293 1.000000
-13.070359 10.774371 -0.887723 12.000000
-9.047226 7.455305 -1.025649 8.000000
-6.777837 5.581259 -1.078056 11.000000
-5.478254 4.509504 -1.123825 12.000000
-4.592577 3.777757 -1.155921 10.000000
-3.930101 3.231669 -1.174694 12.000000
-3.443411 2.829457 -1.194191 13.000000
-14.205543 11.806242 -0.322416 6.000000
-12.986222 10.785203 -0.884687 18.000000
-9.022904 7.490963 -1.025997 8.000000
-6.751222 5.600996 -1.077081 11.000000
-5.469290 4.535858 -1.125390 12.000000
-4.571141 3.788302 -1.154013 10.000000
-3.934737 3.259728 -1.179643 12.000000
-3.437481 2.845755 -1.195744 11.000000
-14.276731 11.945681 -0.324929 6.000000
-12.856923 10.750056 -0.878302 15.000000
-8.988840 7.513178 -1.024952 10.000000
-6.738707 5.628441 -1.078056 11.000000
-5.452705 4.552701 -1.125077 12.000000
-4.541972 3.789603 -1.149815 10.000000
-3.920913 3.270262 -1.178744 14.000000
-3.423574 2.853427 -1.194191 16.000000
-12.836814 10.668691 -0.291350 1.000000
-12.765779 10.753588 -0.291350 12.000000
-12.851398 10.821887 -0.880500 18.000000
-8.918147 7.504455 -1.019722 11.000000
-6.726084 5.655866 -1.079031 11.000000
-5.431528 4.565675 -1.123825 12.000000
-4.545917 3.818534 -1.154013 10.000000
-3.910048 3.283245 -1.178744 12.000000
-3.406694 2.858555 -1.191603 16.000000
-12.784949 10.842426 -0.292607 9.000000
-12.722512 10.785659 -0.874115 21.000000
-8.926655 7.562323 -1.023557 11.000000
-6.717895 5.687119 -1.080737 9.000000
-5.416357 4.583663 -1.123825 12.000000
-4.537725 3.837392 -1.155158 10.000000
-3.893184 3.291162 -1.176944 12.000000
-3.404574 2.876070 -1.194191 14.000000
-12.663805 10.827391 -0.290827 14.000000
-12.635446 10.795510 -0.870975 18.000000
-8.929554 7.626564 -1.027392 8.000000
-6.695010 5.714041 -1.080737 13.000000
-5.402421 4.609216 -1.124764 12.000000
-4.523778 3.856852 -1.155539 12.000000
-3.885873 3.311821 -1.178744 12.000000
-3.393001 2.889715 -1.194191 15.000000
-12.614192 10.857582 -0.290513 3.000000
-12.436048 10.696690 -0.859671 17.000000
-8.923856 7.673019 -1.029658 7.000000
-6.666989 5.728451 -1.079275 11.000000
-5.390103 4.629679 -1.125390 12.000000
-4.507983 3.869276 -1.154776 10.000000
-3.880786 3.329763 -1.180543 14.000000
-3.395134 2.911008 -1.198332 14.000000
-12.638567 10.951739 -0.291909 4.000000
-12.306542 10.660270 -0.853285 20.000000
-8.896853 7.701268 -1.029484 8.000000
-6.662974 5.763511 -1.081712 11.000000
-5.374720 4.647529 -1.125390 12.000000
-4.498100 3.886767 -1.155539 10.000000
-3.863825 3.337518 -1.178744 12.000000
-3.379612 2.917202 -1.196262 14.000000
-12.641354 11.027769 -0.292816 10.000000
-12.254569 10.686580 -0.852134 17.000000
-8.880280 7.738581 -1.030529 8.000000
-6.642329 5.784269 -1.081469 9.000000
-5.356300 4.662732 -1.124764 12.000000
-4.483706 3.900373 -1.155158 10.000000
-3.849794 3.347756 -1.177844 12.000000
-3.362627 2.922058 -1.193673 13.000000
-13.123580 11.533403 -0.304963 12.000000
-12.256207 10.763560 -0.854856 20.000000
-8.853356 7.772389 -1.030704 8.000000
-6.634510 5.820363 -1.083662 11.000000
-5.336205 4.679726 -1.124138 12.000000
-4.473807 3.920666 -1.156303 10.000000
-3.840430 3.364411 -1.178744 12.000000
-3.351894 2.934364 -1.193673 11.000000
-12.857610 11.375456 -0.299658 21.000000
-12.205484 10.790913 -0.853809 17.000000
-8.842460 7.814902 -1.032447 8.000000
-6.600295 5.829190 -1.081225 11.000000
-5.322136 4.698704 -1.124451 12.000000
-4.463726 3.938076 -1.157066 10.000000
-3.829252 3.377129 -1.178744 12.000000
-3.350842 2.953127 -1.196779 11.000000
-12.857118 11.463338 -0.300670 23.000000
-12.366764 11.018394 -0.868044 12.000000
-8.830239 7.864700 -1.034539 10.000000
-6.568965 5.846573 -1.079762 11.000000
-5.312909 4.726985 -1.126328 12.000000
-4.436834 3.944752 -1.154013 10.000000
-3.822081 3.396987 -1.180543 12.000000
-3.336590 2.963405 -1.195744 12.000000
-12.827965 11.513922 -0.300880 24.000000
-12.202295 10.944655 -0.859043 11.000000
-8.786312 7.877977 -1.032447 11.000000
-6.573200 5.889515 -1.083662 11.000000
-5.304563 4.751166 -1.127893 12.000000
-4.428120 3.963369 -1.155158 10.000000
-3.807892 3.407043 -1.179643 12.000000
-3.326745 2.974453 -1.195744 11.000000
-13.186759 11.919333 -0.310269 9.000000
-12.146233 10.971114 -0.857786 14.000000
-8.752846 7.903255 -1.031750 12.000000
-6.558496 5.917745 -1.084637 11.000000
-5.280613 4.763037 -1.126328 12.000000
-4.415715 3.980117 -1.155539 12.000000
-3.798872 3.422922 -1.180543 12.000000
-3.310598 2.980877 -1.193673 9.000000
-13.197448 12.008750 -0.311456 2.000000
-12.081706 10.985806 -0.855798 17.000000
-8.729540 7.934917 -1.032098 12.000000
-6.547650 5.947471 -1.086100 11.000000
-5.254553 4.771225 -1.124138 12.000000
-4.405399 3.997378 -1.156303 12.000000
-3.775954 3.425026 -1.176944 12.000000
-3.300694 2.991840 -1.193673 10.000000
-11.983035 10.984279 -0.851925 17.000000
-8.716635 7.984528 -1.034190 10.000000
-6.518910 5.967206 -1.085125 11.000000
-5.237650 4.792701 -1.124451 12.000000
-4.395814 4.019562 -1.157829 10.000000
-3.774282 3.450017 -1.180543 12.000000
-3.300594 3.014914 -1.197815 11.000000
-11.829116 10.915603 -0.843551 11.000000
-8.706223 8.028245 -1.036108 8.000000
-6.490325 5.980721 -1.083662 11.000000
-5.233353 4.820749 -1.126954 12.000000
-4.375238 4.027468 -1.155921 10.000000
-3.758518 3.458556 -1.179193 10.000000
-3.293423 3.028457 -1.198850 10.000000
-13.133291 12.208484 -0.312991 12.000000
-11.635858 10.812710 -0.832456 13.000000
-8.686904 8.066724 -1.037153 8.000000
-6.485821 6.020674 -1.086587 11.000000
-5.222285 4.844363 -1.128206 12.000000
-4.361154 4.042715 -1.155921 10.000000
-3.753569 3.478279 -1.181443 12.000000
-3.274327 3.032059 -1.195744 9.000000
-13.140235 12.300715 -0.314178 11.000000
-11.774966 11.014964 -0.845016 17.000000
-8.670337 8.107882 -1.038548 8.000000
-6.477424 6.052990 -1.088537 13.000000
-5.194640 4.850870 -1.125703 12.000000
-4.344145 4.055235 -1.155158 10.000000
-3.743437 3.492037 -1.181893 12.000000
-3.266548 3.046106 -1.196779 10.000000
-12.777901 12.049713 -0.306569 7.000000
-11.633758 10.966937 -0.837899 14.000000
-8.649261 8.147805 -1.039594 8.000000
-6.454134 6.077818 -1.088537 11.000000
-5.167346 4.862656 -1.123825 12.000000
-4.330682 4.072476 -1.155539 7.000000
-3.721483 3.498376 -1.179193 12.000000
-3.260994 3.063348 -1.198850 9.000000
-12.718366 12.077719 -0.306150 10.000000
-11.524885 10.936718 -0.832665 11.000000
-8.633778 8.190286 -1.041162 10.000000
-6.425298 6.090995 -1.087075 11.000000
-5.159795 4.887917 -1.125703 12.000000
-4.333545 4.103769 -1.160119 12.000000
-3.702784 3.504002 -1.176944 12.000000
-3.250281 3.074713 -1.198850 12.000000
-12.871940 12.304987 -0.310827 2.000000
-11.216622 10.718843 -0.813092 16.000000
-8.613776 8.225750 -1.042034 8.000000
-6.416555 6.123232 -1.089025 11.000000
-5.156998 4.919530 -1.128831 12.000000
-4.315650 4.114052 -1.158974 12.000000
-3.693353 3.519591 -1.177844 12.000000
-3.245662 3.090804 -1.200920 11.000000
-12.843310 12.363714 -0.311176 9.000000
-11.378211 10.945674 -0.827432 13.000000
-8.570648 8.241961 -1.040291 12.000000
-6.398005 6.148342 -1.089512 11.000000
-5.129256 4.925660 -1.126328 12.000000
-4.297015 4.125011 -1.157829 15.000000
-3.687286 3.537217 -1.179643 12.000000
-3.226488 3.094092 -1.197815 10.000000
-12.001779 11.634591 -0.291769 4.000000
-11.289248 10.940049 -0.823873 13.000000
-8.477421 8.209454 -1.032447 16.000000
-6.381130 6.177275 -1.090487 11.000000
-5.111169 4.944425 -1.126328 12.000000
-4.284000 4.141351 -1.158211 10.000000
-3.678502 3.554770 -1.180993 12.000000
-3.210109 3.099968 -1.195744 10.000000
-12.087011 11.799343 -0.294841 1.000000
-11.282932 11.006711 -0.826071 16.000000
-8.420182 8.211178 -1.028961 26.000000
-6.357769 6.195629 -1.089999 11.000000
-5.091916 4.958590 -1.125703 12.000000
-4.268110 4.154912 -1.157829 10.000000
-3.661107 3.561512 -1.179193 8.000000
-3.202037 3.113849 -1.196779 12.000000
-11.846102 11.645205 -0.289954 1.000000
-11.259606 11.064794 -0.827327 19.000000
-8.461123 8.308925 -1.037502 21.000000
-6.330770 6.214716 -1.089268 9.000000
-5.070883 4.974456 -1.125077 12.000000
-4.256388 4.172531 -1.158592 12.000000
-3.646636 3.573544 -1.178744 12.000000
-3.199431 3.133115 -1.199885 12.000000
-11.791171 11.672414 -0.289605 2.000000
-11.062407 10.943348 -0.815499 13.000000
-8.423569 8.330001 -1.036456 21.000000
-6.311537 6.237073 -1.089512 11.000000
-5.057172 4.994020 -1.125703 12.000000
-4.240398 4.185985 -1.158211 10.000000
-3.631991 3.582879 -1.177844 12.000000
-3.186272 3.140996 -1.198850 11.000000
-12.299850 12.261269 -0.303148 11.000000
-11.013738 10.975358 -0.814871 11.000000
-8.380324 8.345294 -1.034713 20.000000
-6.299890 6.271367 -1.091462 11.000000
-5.045835 5.019488 -1.127267 12.000000
-4.221585 4.196608 -1.157066 10.000000
-3.632655 3.609906 -1.182343 8.000000
-3.171999 3.149928 -1.197815 10.000000
-11.788427 11.833784 -0.291560 4.000000
-11.028040 11.062745 -0.818639 11.000000
-8.348327 8.371677 -1.034364 26.000000
-6.288872 6.302061 -1.093168 9.000000
-5.019392 5.026408 -1.125077 12.000000
-4.213847 4.218265 -1.158974 10.000000
-3.617910 3.619175 -1.181443 12.000000
-3.160983 3.160983 -1.197815 11.000000
-11.766002 11.889865 -0.291979 9.000000
-11.003405 11.115370 -0.819686 13.000000
-8.321923 8.400728 -1.034539 20.000000
-6.257053 6.314106 -1.091462 11.000000
-5.005990 5.048105 -1.126015 12.000000
-4.199836 4.232214 -1.158974 10.000000
-3.602509 3.629015 -1.180543 10.000000
-3.158652 3.179672 -1.200920 11.000000
-11.987930 12.199002 -0.298541 10.000000
-11.026704 11.213030 -0.824187 16.000000
-8.354029 8.492219 -1.042208 16.000000
-6.247222 6.346136 -1.093412 11.000000
-4.987837 5.063270 -1.125703 12.000000
-4.191926 4.253841 -1.160882 7.000000
-3.589088 3.639553 -1.180093 12.000000
-3.144819 3.187928 -1.199885 11.000000
-11.152792 11.432682 -0.278785 18.000000
-10.943117 11.213830 -0.821151 13.000000
-8.374350 8.575525 -1.048658 15.000000
-6.220037 6.367236 -1.092924 11.000000
-4.965596 5.079560 -1.125077 12.000000
-4.180426 4.273386 -1.162027 10.000000
-3.573723 3.651916 -1.179643 12.000000
-3.141224 3.207714 -1.202991 10.000000
-11.744491 12.123615 -0.294632 12.000000
-10.875285 11.218512 -0.818848 13.000000
-8.333266 8.593266 -1.047264 15.000000
-6.209949 6.399223 -1.094874 11.000000
-4.961108 5.108755 -1.127893 12.000000
-4.170957 4.293584 -1.163553 10.000000
-3.571100 3.673528 -1.182793 12.000000
-3.119235 3.207579 -1.198850 12.000000
-11.874016 12.343230 -0.298960 11.000000
-10.166573 10.564634 -0.768397 5.000000
-8.312899 8.632341 -1.048484 19.000000
-6.186193 6.419433 -1.094630 9.000000
-4.930015 5.114101 -1.125077 12.000000
-4.139586 4.291163 -1.158974 10.000000
-3.556261 3.685188 -1.182343 12.000000
-3.105334 3.215669 -1.197815 12.000000
-11.666477 12.212537 -0.294806 14.000000
-10.887787 11.389447 -0.825757 16.000000
-8.319892 8.700187 -1.053190 15.000000
-6.177471 6.455332 -1.097068 9.000000
-4.911662 5.128996 -1.124764 12.000000
-4.123225 4.304169 -1.158592 10.000000
-3.533232 3.685708 -1.178744 10.000000
-3.094091 3.226489 -1.197815 12.000000
-11.795805 12.434535 -0.299169 18.000000
-10.740110 11.317719 -0.817697 16.000000
-8.314166 8.755184 -1.056328 12.000000
-6.155138 6.479367 -1.097312 11.000000
-4.895550 5.149827 -1.125390 12.000000
-4.112234 4.322803 -1.159737 10.000000
-3.529102 3.708515 -1.181893 10.000000
-3.082809 3.237270 -1.197815 10.000000
-10.896719 11.567361 -0.277389 1.000000
-10.673754 11.322751 -0.815499 16.000000
-8.310894 8.813142 -1.059814 11.000000
-6.134982 6.501185 -1.097555 9.000000
-4.890651 5.178961 -1.128206 12.000000
-4.093074 4.332851 -1.158592 10.000000
-3.518126 3.721612 -1.182343 12.000000
-3.079453 3.256434 -1.200920 11.000000
-11.678101 12.479496 -0.298331 1.000000
-10.426693 11.138314 -0.799589 13.000000
-8.284345 8.843562 -1.060163 9.000000
-6.106822 6.516765 -1.096580 9.000000
-4.883357 5.207525 -1.130708 12.000000
-4.081371 4.349263 -1.159356 7.000000
-3.497110 3.725346 -1.179643 12.000000
-3.063347 3.260995 -1.198850 12.000000
-11.590905 12.473311 -0.297214 3.000000
-10.199289 10.968063 -0.784935 15.000000
-8.264278 8.884099 -1.061557 9.000000
-6.095998 6.548606 -1.098530 9.000000
-4.855288 5.212129 -1.128206 12.000000
-4.066165 4.363482 -1.159356 7.000000
-3.490052 3.742624 -1.181443 12.000000
-3.051199 3.269722 -1.198332 14.000000
-11.555441 12.522506 -0.297424 1.000000
-10.303971 11.162404 -0.796135 18.000000
-8.257558 8.939231 -1.064695 9.000000
-6.078689 6.578197 -1.099749 9.000000
-4.830788 5.224087 -1.126954 12.000000
-4.052241 4.379091 -1.159737 12.000000
-3.476312 3.755390 -1.181443 8.000000
-3.040507 3.282302 -1.198850 13.000000
-11.511655 12.562769 -0.297424 4.000000
-10.077925 10.990422 -0.781481 15.000000
-8.231688 8.973876 -1.065392 12.000000
-6.052816 6.593930 -1.099018 9.000000
-4.818782 5.245898 -1.128206 12.000000
-4.035603 4.391763 -1.159356 10.000000
-3.461201 3.764029 -1.180543 10.000000
-3.039494 3.304269 -1.202991 10.000000
-11.575396 12.721203 -0.300216 10.000000
-10.138404 11.138063 -0.789331 13.000000
-8.205678 9.008449 -1.066089 9.000000
-6.028606 6.616072 -1.099018 9.000000
-4.802183 5.266445 -1.128831 12.000000
-4.021573 4.407272 -1.159737 10.000000
-3.447383 3.776689 -1.180543 12.000000
-3.025337 3.312005 -1.201956 11.000000
-11.525558 12.755591 -0.300077 13.000000
-10.092039 11.161250 -0.788598 18.000000
-8.178198 9.041465 -1.066612 9.000000
-6.011962 6.641912 -1.099993 11.000000
-4.793979 5.292586 -1.131021 12.000000
-4.004845 4.419829 -1.159356 10.000000
-3.445313 3.799649 -1.184142 12.000000
-3.003373 3.311099 -1.197815 11.000000
-10.611574 11.826802 -0.277354 1.000000
-10.113768 11.268020 -0.793518 13.000000
-8.147917 9.071442 -1.066786 9.000000
-5.998194 6.675714 -1.101943 11.000000
-4.757377 5.291026 -1.126954 12.000000
-3.992019 4.436700 -1.160119 10.000000
-3.431362 3.812252 -1.184142 10.000000
-2.996969 3.327303 -1.199885 10.000000
-11.591873 13.010426 -0.304161 12.000000
-10.032481 11.252304 -0.790064 18.000000
-8.130788 9.116185 -1.068704 8.000000
-5.978665 6.698532 -1.102430 9.000000
-4.747699 5.315614 -1.128831 12.000000
-3.984355 4.459393 -1.162409 7.000000
-3.409608 3.813441 -1.180993 12.000000
-2.984048 3.336306 -1.199368 13.000000
-12.336107 13.943432 -0.324964 1.000000
-10.017649 11.318910 -0.792157 18.000000
-8.102881 9.148985 -1.069227 9.000000
-5.953928 6.717877 -1.102186 11.000000
-4.728186 5.332979 -1.128831 12.000000
-3.971370 4.476212 -1.163172 7.000000
-3.390433 3.820083 -1.179193 10.000000
-2.978797 3.353924 -1.201956 12.000000
-11.355576 12.925787 -0.300321 12.000000
-10.168632 11.566572 -0.807125 16.000000
-8.081419 9.189183 -1.070621 9.000000
-5.940939 6.750536 -1.104136 11.000000
-4.703946 5.341218 -1.127267 10.000000
-3.954426 4.488572 -1.162790 10.000000
-3.391925 3.847383 -1.184142 10.000000
-2.972185 3.370096 -1.204026 10.000000
-10.414803 11.771792 -0.274352 1.000000
-11.338943 12.993510 -0.301019 7.000000
-8.066634 9.233937 -1.072713 9.000000
-5.922562 6.777213 -1.105111 11.000000
-4.698277 5.372474 -1.130396 10.000000
-3.925296 4.485410 -1.158592 10.000000
-3.370772 3.850403 -1.181443 8.000000
-2.953354 3.371215 -1.200920 11.000000
-11.238527 12.969532 -0.299553 13.000000
-9.907786 11.425775 -0.792576 7.000000
-8.030437 9.257522 -1.072190 9.000000
-5.898752 6.795319 -1.104867 9.000000
-4.679142 5.386532 -1.130083 10.000000
-3.922491 4.513905 -1.162409 7.000000
-3.361821 3.865970 -1.182793 10.000000
-2.928889 3.366930 -1.195744 10.000000
-10.754950 12.499372 -0.287825 10.000000
-9.650861 11.212244 -0.775305 13.000000
-8.008474 9.297576 -1.073585 8.000000
-5.884174 6.828923 -1.106817 11.000000
-4.655497 5.399159 -1.129144 12.000000
-3.899016 4.518650 -1.160119 7.000000
-3.337442 3.866465 -1.179193 8.000000
-2.928485 3.390288 -1.200403 13.000000
-11.267213 13.187548 -0.302764 12.000000
-9.416340 11.013445 -0.759395 12.000000
-7.999279 9.352731 -1.076722 9.000000
-5.858912 6.845383 -1.106330 9.000000
-4.642705 5.420570 -1.130396 12.000000
-3.888328 4.538197 -1.161645 7.000000
-3.330943 3.884909 -1.181443 8.000000
-2.918484 3.401447 -1.200920 11.000000
-11.365996 13.397586 -0.306674 1.000000
-9.324225 10.986964 -0.755208 2.000000
-7.984641 9.401855 -1.079162 9.000000
-5.831218 6.863781 -1.105842 11.000000
-4.620248 5.434539 -1.129770 10.000000
-3.872466 4.551740 -1.161645 12.000000
-3.317945 3.898575 -1.181893 7.000000
-2.908503 3.415062 -1.201956 9.000000
-12.334351 14.642338 -0.334179 4.000000
-9.323781 11.060586 -0.758139 5.000000
-7.976180 9.458608 -1.082474 9.000000
-5.816104 6.892184 -1.107305 11.000000
-4.600928 5.448320 -1.129457 12.000000
-3.854019 4.562231 -1.160882 10.000000
-3.308774 3.914020 -1.183243 8.000000
-2.884089 3.410444 -1.196779 11.000000
-10.937815 12.984484 -0.296342 4.000000
-11.351539 13.566654 -0.308768 10.000000
-9.206914 10.999640 -0.751754 15.000000
-7.879520 9.407111 -1.073585 11.000000
-5.795833 6.917010 -1.108036 11.000000
-4.579342 5.461321 -1.128831 8.000000
-3.836344 4.571979 -1.160119 7.000000
-3.296343 3.927039 -1.183692 8.000000
-2.880218 3.428865 -1.199885 9.000000
-11.398673 13.720020 -0.311351 4.000000
-9.137185 10.990184 -0.749032 17.000000
-7.772744 9.345710 -1.063474 17.000000
-5.788101 6.954503 -1.110961 9.000000
-4.563736 5.479512 -1.129457 12.000000
-3.827900 4.594394 -1.162409 7.000000
-3.287047 3.942438 -1.185042 10.000000
-2.875655 3.447800 -1.202991 10.000000
-9.203628 11.152997 -0.757825 15.000000
-7.760370 9.397367 -1.066263 19.000000
-5.770163 6.984849 -1.112423 9.000000
-4.553689 5.508383 -1.131960 12.000000
-3.809340 4.604700 -1.161645 7.000000
